# .PCD v0.7 - Point Cloud Data file format
VERSION 0.7
FIELDS x y z intensity
SIZE 4 4 4 4
TYPE F F F F
COUNT 1 1 1 1
WIDTH 116
HEIGHT 1
VIEWPOINT 0 0 0 1 0 0 0
POINTS 116
DATA ascii
1.7308549 -0.3400811 -0.45028478 1263
1.7354578 -0.35524192 -0.4422932 1355
1.7391442 -0.34081233 -0.44340992 1539
1.7379574 -0.32576627 -0.44305035 1179
1.7408004 -0.3556335 -0.43471283 1411
1.7349821 -0.33995923 -0.4329817 1626
1.7337867 -0.32497385 -0.43262598 1301
1.7508607 -0.35667771 -0.42850715 1377
1.7402787 -0.34032482 -0.42541543 1643
1.7400382 -0.32542667 -0.42534515 1395
1.7607347 -0.38793662 -0.42204115 1339
1.7504503 -0.35628614 -0.41909218 1307
1.7417582 -0.34020296 -0.41659975 1650
1.7520221 -0.32655871 -0.41954288 1469
1.7865541 -0.43788436 -0.41987795 1308
1.7672065 -0.41903725 -0.41443598 1435
1.776194 -0.4052574 -0.41696393 1519
1.7707934 -0.38911909 -0.41544488 1561
1.7757338 -0.37463033 -0.4168345 1302
1.762422 -0.35759142 -0.4130902 1219
1.747995 -0.34069043 -0.40903223 1647
1.7573214 -0.32689831 -0.41165552 1544
1.7861005 -0.43736342 -0.41035774 1480
1.7847863 -0.42167804 -0.40999514 1569
1.7747658 -0.40463167 -0.40723044 1605
1.77984 -0.39015377 -0.4086304 1598
1.7733403 -0.37393445 -0.40683711 1360
1.764688 -0.34251848 -0.40444988 1624
1.7625486 -0.32723793 -0.40385962 1602
1.8545791 -0.61333293 -0.41923162 1195
1.87257 -0.6014595 -0.4240962 1272
1.7866147 -0.4370161 -0.40085453 1480
1.7919605 -0.42250326 -0.40229997 1546
1.7771654 -0.40463167 -0.39829952 1531
1.7774729 -0.3894147 -0.39838263 1474
1.7728701 -0.37351695 -0.39713806 1239
1.7594082 -0.34154353 -0.39349809 1575
1.7515032 -0.32565308 -0.39136061 1631
1.8700047 -0.61695635 -0.41376281 1316
1.8665257 -0.59920609 -0.4128404 1426
1.7869757 -0.43666881 -0.39174902 1329
1.8047191 -0.42431876 -0.39645338 1339
1.7899195 -0.40635246 -0.39252952 1232
1.7625967 -0.34166539 -0.38528532 1498
1.7681277 -0.32735112 -0.38675177 1612
1.75047 -0.31044409 -0.38207012 1203
1.8695704 -0.61617994 -0.4038552 1280
1.8688914 -0.59920609 -0.4036788 1468
1.7667474 -0.34190914 -0.37714276 1329
1.7694027 -0.32723793 -0.37783259 1442
1.8843281 -0.60271138 -0.39792228 1500
1.8687556 -0.59795421 -0.38428429 1457
1.8867402 -0.58591014 -0.38876647 1227
1.8709936 -0.59795421 -0.37504888 1237
1.8524721 -0.49465665 -0.36086363 1213
1.8605304 -0.52835304 -0.35323101 1174
1.8533375 -0.51052809 -0.35155275 1396
1.8507459 -0.49385914 -0.3509481 1462
1.8454804 -0.5244571 -0.34012306 1311
1.8592275 -0.51135975 -0.34325761 1524
1.8337101 -0.4898718 -0.33743927 1525
1.8424155 -0.47573894 -0.33942419 1295
1.8713059 -0.52986807 -0.33637697 1285
1.8631545 -0.51177555 -0.33456114 1474
1.8414378 -0.49106801 -0.32972348 1416
1.8511209 -0.47707462 -0.33188051 1182
1.8690046 -0.51260722 -0.32600322 1244
1.8669651 -0.50844896 -0.23059128 1221
1.8672223 -0.49246359 -0.23063387 1409
1.8547471 -0.47402167 -0.22856918 1206
1.8663393 -0.46038386 -0.23048772 1452
1.857424 -0.44292015 -0.22901224 1251
1.8693488 -0.50865692 -0.22182046 1347
1.8638028 -0.49146676 -0.22093031 1559
1.8619705 -0.47516653 -0.22063625 1344
1.8425151 -0.45564574 -0.21751361 1597
1.8510555 -0.44153097 -0.21888436 1376
1.8736687 -0.50928062 -0.21303526 1330
1.8758701 -0.49365979 -0.21337724 1579
1.853685 -0.47325844 -0.20993094 1364
1.8526586 -0.45728588 -0.20977148 1595
1.8446761 -0.4401418 -0.20853145 1425
1.8788953 -0.51011229 -0.20448717 1279
1.8646315 -0.49106801 -0.20234385 1576
1.8598809 -0.47421247 -0.20163001 1368
1.8646957 -0.45929044 -0.20235349 1575
1.8489331 -0.44066274 -0.19998495 1469
1.8918501 -0.51260722 -0.19684756 1217
1.8678992 -0.49146676 -0.19337231 1572
1.8718915 -0.47631139 -0.19395159 1379
1.8650508 -0.45910823 -0.19295903 1547
1.8609701 -0.44257283 -0.19236691 1501
1.8701425 -0.49166614 -0.18431236 1552
1.8877494 -0.47917351 -0.18677701 1400
1.8497676 -0.45601022 -0.18146025 1514
1.8690652 -0.44378841 -0.18416154 1524
1.8752524 -0.49246359 -0.17564321 1533
1.8714763 -0.47573894 -0.17513388 1427
1.8548768 -0.45673916 -0.17289495 1484
1.8517463 -0.44048908 -0.17247273 1543
1.887112 -0.49465665 -0.16790649 1502
1.8687501 -0.47497571 -0.16552246 1450
1.8638341 -0.45819706 -0.16488419 1396
1.8636439 -0.4423992 -0.16485949 1474
1.8765855 -0.49226424 -0.15718201 1412
1.874751 -0.47592977 -0.15695316 1384
1.8647709 -0.4423992 -0.15570812 1185
1.8864477 -0.49405852 -0.14886825 1175
1.8845025 -0.46020162 -0.064653419 1353
1.8745071 -0.44257283 -0.063912079 1416
1.8841443 -0.46001941 -0.055376094 1428
1.8869157 -0.44465664 -0.055567775 1510
1.8817846 -0.45947269 -0.045852654 1394
1.8786554 -0.44309381 -0.045652103 1521
1.8852577 -0.46001941 -0.036840349 1315
1.8786877 -0.44292015 -0.027132178 1256
