# .PCD v0.7 - Point Cloud Data file format
VERSION 0.7
FIELDS x y z intensity
SIZE 4 4 4 4
TYPE F F F F
COUNT 1 1 1 1
WIDTH 394
HEIGHT 1
VIEWPOINT 0 0 0 1 0 0 0
POINTS 394
DATA ascii
2.097645 0.52442104 -0.82788855 834
2.0783257 0.51945066 -0.83152592 816
2.1182663 0.53348452 -0.85472661 826
1.7444494 0.76353562 -0.29561111 947
2.8126943 0.97296232 -0.49629635 1166
2.8321235 0.9519431 -0.48579276 1354
2.8723171 0.91101879 -0.47922596 1194
2.8531804 0.9314279 -0.47550383 1127
2.8357306 0.95230955 -0.47210976 1346
2.8263221 0.97633392 -0.47027981 1356
2.8875306 0.88795608 -0.46752036 1350
2.868669 0.93644494 -0.46394873 1294
2.8475022 0.95597452 -0.45994064 1291
3.0114887 0.73423481 -0.47525299 1186
2.8676634 0.93501157 -0.44877923 1214
2.847404 0.95487505 -0.44505009 1210
2.8315723 0.97633392 -0.44213599 1428
3.0056529 0.75948787 -0.45878711 1166
2.918155 0.86942333 -0.44313502 922
2.8964789 0.88932425 -0.4392575 1157
2.8774407 0.90996808 -0.43585181 1055
2.8830719 0.94002861 -0.43685916 850
2.843209 0.98007995 -0.42972827 1308
3.0205467 0.73537093 -0.44596907 1318
2.8474898 0.98082918 -0.41590959 1034
1.6808491 0.73914206 -0.21326724 879
3.0277727 0.73679096 -0.43194592 1171
3.0154541 0.76094973 -0.42986915 1119
3.0359166 0.73849505 -0.41778418 834
2.970402 0.82933688 -0.40707836 1248
2.9708617 0.82870221 -0.3920399 1412
2.95872 0.85247141 -0.39011836 1301
1.6960735 0.7454446 -0.1902903 904
2.9694018 0.82743299 -0.37650663 1301
2.9628696 0.85312259 -0.37550691 1145
3.0051553 0.81066483 -0.36687258 850
1.695099 0.74350536 -0.17304105 915
1.7066858 0.74932307 -0.16602342 922
1.7199374 0.75611037 -0.15942916 926
1.7238243 0.75708008 -0.14285783 933
2.9935963 0.83155799 -0.28949565 1014
2.9563336 0.90266293 -0.28493571 901
2.9812558 0.85475039 -0.27272713 1317
2.9604065 0.87543184 -0.27028373 1361
1.7414945 0.76580656 -0.12743667 941
2.9932353 0.83028877 -0.25936449 1277
2.981945 0.85442483 -0.25809771 1385
2.9648335 0.87643331 -0.25617784 1425
2.9994917 0.83187526 -0.24548469 1223
2.9938221 0.85800606 -0.24487649 1401
2.9584196 0.9016369 -0.24107854 1238
1.7641678 0.77744204 -0.11296038 947
2.9972911 0.85865724 -0.22951475 1405
2.9562483 0.90026885 -0.22532977 1269
2.9920659 0.85637826 -0.21483456 1377
2.9758489 0.87876993 -0.21325856 1276
1.7841408 0.78762305 -0.097447492 948
3.0056627 0.83250988 -0.20161922 951
2.9654479 0.90266293 -0.19790795 934
1.6468358 0.72823364 -0.076218292 810
2.9956732 0.85670382 -0.18515417 865
1.6631569 0.73709726 -0.069178469 819
1.6574893 0.73315787 -0.052159149 832
2.9979472 0.88411087 -0.12551653 1021
2.9983492 0.9125815 -0.12554342 959
1.6689963 0.7390669 -0.036694001 848
2.9951098 0.8827756 -0.1102917 1257
1.6790457 0.74448359 -0.0290162 840
3.0051978 0.88577992 -0.080906093 1211
2.9924471 0.9095034 -0.080247499 1162
3.0153069 0.88911802 -0.06647671 940
1.6724515 0.74005175 -0.0038534361 851
1.6713158 0.7390669 0.01249941 866
1.69506 0.75236231 0.020467516 900
1.6535109 0.74649996 0.021769911 867
1.6561073 0.76586545 0.021688525 877
1.6284952 0.76731658 0.022554053 881
1.6154633 0.77723742 0.022962553 841
1.5453185 0.82166064 0.025161307 800
1.5443426 0.83908588 0.025191896 812
1.6974696 0.82739735 0.028288776 906
1.6856321 0.83893168 0.028603598 866
1.6554714 0.87659651 0.029405728 886
1.6432824 0.88764542 0.029729899 891
1.6310172 0.89855844 0.030056097 894
1.5973866 0.89442247 0.030950511 899
1.5622376 0.9075554 0.031885311 880
1.5522935 0.91943115 0.032149777 913
1.5430498 0.93181437 0.032395616 913
2.812639 -0.11057805 0.026350055 804
2.8890483 -0.037607651 0.025080502 870
2.9070811 -0.012694556 0.024780881 871
3.0036943 0.067038074 0.023175636 835
3.0307376 0.094394356 0.022726309 835
3.058516 0.12232497 0.022264766 823
3.1029451 0.15238702 0.021526568 813
2.5403171 -0.40874428 0.043396343 802
2.6610799 -0.33328617 0.041993443 815
2.7300446 -0.29309255 0.041192286 822
2.724344 -0.2700212 0.04125851 826
2.7883675 -0.25011486 0.040514749 828
2.8814757 -0.18204655 0.039433114 838
2.9227858 -0.15838201 0.038953219 838
3.2136393 0.027665693 0.035574384 814
3.4375322 0.59973025 0.15229027 833
2.9402986 1.1773844 0.1406303 829
2.9115984 1.2236353 0.13995729 817
2.8942804 1.2451974 0.13955119 823
2.8325236 1.3039913 0.13810302 892
2.7996681 1.3165627 0.13733257 893
3.4531074 0.5728997 0.16968676 962
3.2060752 0.86628789 0.16266315 807
3.0954022 1.0052516 0.15951648 811
3.0788412 1.0285418 0.15904562 820
3.0340996 1.069922 0.15777352 883
2.9824035 1.1073058 0.1563037 882
2.9778593 1.1350182 0.1561745 883
2.9630427 1.1581841 0.15575324 894
2.9283397 1.2018759 0.15476656 902
2.8923225 1.2144296 0.15374252 899
2.884928 1.2407355 0.15353228 910
2.8124506 1.32372 0.1514716 976
2.7401533 1.4048563 0.14941603 921
2.7232029 1.4255353 0.14893411 917
2.696449 1.4711255 0.14817344 886
2.6504509 1.5042741 0.14686562 869
3.4574182 0.5739392 0.18724878 958
3.4267235 0.59756583 0.18621966 899
3.0183783 1.0932865 0.17252894 839
2.9800961 1.1362385 0.17124544 835
2.9552674 1.1548666 0.170413 839
2.9493535 1.1820333 0.17021473 848
2.9341598 1.2048894 0.16970532 849
2.901715 1.2192516 0.16861753 849
2.8580973 1.2574809 0.16715515 883
2.8520632 1.2844918 0.16695283 923
2.8395877 1.3082167 0.16653457 950
2.7939141 1.3441845 0.16500326 933
2.7861395 1.3703539 0.16474259 939
2.7500222 1.4109467 0.16353168 962
2.7304511 1.4301705 0.1628755 972
2.6917531 1.4684758 0.16157807 952
2.6472838 1.5339535 0.16008714 847
2.3927789 -0.9811517 0.16317707 813
2.4019578 -0.96203083 0.16353007 859
3.4597073 0.57456297 0.20420723 945
2.818471 1.3275373 0.17954764 816
2.7986319 1.3470933 0.1787847 823
2.7821364 1.3683844 0.17815034 846
2.7585497 1.3855 0.17724328 869
2.7563922 1.4150071 0.17716032 928
2.7316499 1.4312007 0.17620881 984
2.7153461 1.4523057 0.17558183 968
2.7014148 1.4748349 0.17504609 948
2.6492839 1.5356094 0.17304133 866
2.3950377 -1.0048342 0.17526892 928
2.4608605 -0.93782789 0.17813499 899
2.4545155 -0.91298294 0.17785871 868
3.4638424 0.57560253 0.22180727 932
2.7445972 1.4084091 0.19048959 901
2.7344756 1.4332608 0.19004887 1001
2.7173054 1.4538732 0.18930124 960
2.6623237 1.5129883 0.1869072 921
2.6470354 1.5345055 0.18624151 872
2.6373625 1.5597953 0.18582033 810
2.3520794 -1.0334305 0.18492192 942
2.3681984 -1.0172681 0.18570395 973
2.4308844 -0.97297549 0.18874516 965
2.4602692 -0.93782789 0.19017076 901
2.5317624 -0.86960727 0.19363925 814
3.4684117 0.60730559 0.2390808 943
2.7432396 1.4389262 0.20389907 1004
2.6959403 1.4721853 0.20160435 858
2.6793153 1.4929433 0.20079778 918
2.3416808 -1.0520575 0.19602549 824
2.3514483 -1.0334305 0.19654851 966
2.3844972 -1.0012505 0.19831817 962
2.3910332 -0.9811517 0.19866815 925
2.4646323 -0.91679066 0.20260912 867
2.497956 -0.90499741 0.20439349 898
2.5064888 -0.88486242 0.20485039 884
2.5301304 -0.86931491 0.20611632 850
3.4787114 0.57913703 0.25690952 896
3.476269 0.60925353 0.25677875 956
2.7440701 1.4089166 0.21757205 848
2.7399411 1.4373813 0.21735094 1007
2.7304053 1.4627556 0.21684034 959
2.6701887 1.5189795 0.21361595 931
2.3668063 -1.0172681 0.2101323 924
2.3911905 -1.0041174 0.21157141 869
2.4682641 -0.94108355 0.21612017 825
3.4780958 0.60990286 0.27571872 981
2.7552392 1.4160221 0.23305696 875
2.7416365 1.4389262 0.23225413 1016
2.7096019 1.4817238 0.23036352 875
2.6743619 1.5222472 0.2282837 941
2.6506798 1.5383691 0.22688603 888
1.8219023 -2.1209407 0.18642913 955
1.7717047 -2.028321 0.18322906 934
1.7339146 -1.9524645 0.18081997 877
1.7183049 -1.9034278 0.17982486 825
2.1930583 -1.1881659 0.21009009 824
2.2003741 -1.1691788 0.21055646 858
2.2568207 -1.1512977 0.2141549 826
2.3564682 -1.0360527 0.22050737 914
2.3688819 -1.0183675 0.22129874 885
2.4568624 -0.98323607 0.22690743 818
2.4585254 -0.96083963 0.22701345 968
2.5230231 -0.89057589 0.23112515 834
2.5381103 -0.87223864 0.23208694 873
3.4853673 0.5810082 0.29247397 857
3.4819355 0.61098504 0.29225519 982
2.762156 1.4205899 0.24636972 915
2.7253187 1.4606656 0.24402136 970
2.7062538 1.480134 0.24280599 876
2.6954651 1.5047637 0.24211821 929
2.6877918 1.5315062 0.24162903 947
2.6565456 1.5427846 0.23963711 904
1.635273 -1.9342043 0.18232705 903
1.6333944 -1.900423 0.18219814 947
2.205663 -1.1949757 0.22146674 843
2.2014284 -1.1700714 0.22117616 875
2.27841 -1.1389862 0.22645856 872
2.4401116 -0.97742176 0.2375544 909
3.4949584 0.58329523 0.30993712 885
3.4382088 0.66251546 0.306043 852
2.768981 1.4251579 0.26012114 901
2.703831 1.5106741 0.25565061 927
2.6843941 1.5298723 0.25431687 959
2.6606596 1.5460961 0.2526882 914
2.6583426 1.5765711 0.25252923 805
2.2301762 -1.1619804 0.23416732 899
2.2570455 -1.1521587 0.23614593 903
2.4761794 -0.94466478 0.25228235 990
3.5546134 0.53383142 0.33169541 836
3.532057 0.56039846 0.33003443 890
3.4902427 0.61336589 0.32695532 990
3.475836 0.64095628 0.32589447 995
3.318181 0.81347507 0.31428516 826
2.77141 1.4271879 0.27402237 815
2.7474642 1.4440765 0.27225906 962
2.7370319 1.4690256 0.27149084 937
2.6606808 1.5788078 0.26586854 806
2.3625331 -1.0623901 0.25584319 859
2.354811 -1.0364273 0.25523499 894
2.4671121 -0.96484536 0.26408002 1008
2.4799063 -0.94629258 0.26508769 890
2.5591693 -0.87954789 0.27133057 834
2.5779889 -0.86193138 0.27281281 842
3.5365229 0.56159467 0.34830841 859
3.5069385 0.58641392 0.34597829 908
3.4878898 0.61314946 0.34447798 960
3.4304836 0.69192129 0.33995658 1020
3.3838336 0.74106711 0.33628234 994
3.3470304 0.79186577 0.33338368 986
3.3254712 0.81603128 0.33168563 959
3.3075509 0.84105957 0.33027422 812
2.7367947 1.4695481 0.28532061 879
2.6958864 1.5069129 0.28209859 911
2.6840215 1.5309615 0.28116411 960
2.6711023 1.5543752 0.2801466 923
1.5743146 -1.7458811 0.2015854 854
2.3778436 -1.046167 0.26895481 895
3.4922726 0.61444807 0.36239067 847
3.4691296 0.64005649 0.3604503 891
3.4280858 0.69167936 0.35700911 942
3.4092028 0.71754229 0.35542592 951
2.7115655 1.5176589 0.29693466 914
2.6887469 1.5347739 0.29502153 965
2.6683209 1.5532713 0.29330894 923
1.5562567 -1.7547401 0.20762761 875
1.5782884 -1.7510833 0.20958419 944
1.586233 -1.73168 0.21028972 843
2.3706362 -1.0665996 0.27995014 887
2.5341816 -0.91890323 0.29447412 816
2.569104 -0.85994327 0.29757544 845
3.388658 0.74313766 0.37035751 814
3.3341079 0.81943947 0.36551309 852
2.7271826 1.4965615 0.31161392 824
2.6967704 1.540765 0.30891311 966
2.6804538 1.5621023 0.30746409 927
2.6664391 1.5849589 0.30621949 804
1.5895129 -1.7361037 0.21852292 893
2.5114517 -0.95833862 0.30510551 800
2.495863 -0.92980009 0.3036415 839
2.7099543 1.5181963 0.32374758 863
2.6913259 1.5380418 0.32199815 954
2.6767011 1.5604465 0.32062468 934
1.5954328 -1.7434765 0.22711553 939
2.4197276 -1.0180937 0.3087714 863
2.4804325 -0.97118765 0.31478491 881
2.514432 -0.93646353 0.31815296 902
2.5621154 -0.8818869 0.32287654 840
2.6949883 1.5413096 0.33603913 894
2.6886401 1.5692775 0.3354103 918
1.5585499 -1.7599828 0.23099881 1095
1.573274 -1.7481105 0.23253021 1119
2.3763237 -1.0704263 0.31605223 866
2.4394333 -1.04952 0.32261598 801
2.5257132 -0.91735816 0.33158961 884
2.5948784 -0.86874771 0.3387832 813
2.70364 1.5478454 0.35009506 809
2.6872849 1.5692775 0.34839407 876
1.5623364 -1.7652255 0.23890151 1114
1.5991503 -1.7493746 0.24291128 936
2.2363176 -1.1685559 0.31231141 835
2.3932536 -1.054783 0.32940483 827
2.4131796 -1.0396246 0.33157519 833
2.4369245 -1.0025144 0.33416146 922
2.4518445 -0.98494613 0.33578652 942
2.4835026 -0.97319049 0.33923474 967
2.5010328 -0.95605969 0.34114411 997
2.5385704 -0.92199337 0.3452327 870
2.6078157 -0.87300801 0.35277489 809
1.5427068 -1.7724745 0.24423075 865
1.5728977 -1.7495968 0.24766856 1099
2.1952932 -1.2405446 0.3185406 821
2.378355 -1.0723398 0.33938584 901
2.490562 -0.97619474 0.35216281 966
2.5198817 -0.93963659 0.35550144 910
2.582773 -0.88948858 0.36266288 872
2.609236 -0.87386006 0.36567619 800
1.5469432 -1.7785121 0.25287336 850
1.5644289 -1.7697192 0.25495878 1064
2.3805313 -1.0738705 0.3522903 879
2.3941135 -1.0562814 0.35391015 858
2.4489322 -1.0081177 0.36044806 908
2.4760127 -0.99486476 0.3636778 898
2.4871268 -0.97552711 0.36500329 917
2.487757 -0.95247835 0.36507845 870
2.5355785 -0.92199337 0.37078181 850
2.55652 -0.90531045 0.37327939 876
2.5963459 -0.89416647 0.3780292 849
2.3891604 -1.0780801 0.36519119 835
2.4046106 -1.0611513 0.36711174 835
2.4374826 -1.0509862 0.37119788 819
2.4295857 -1.0245444 0.37021625 886
2.4632368 -1.0140712 0.37439924 861
2.4921546 -0.97786385 0.37799385 851
2.540288 -0.94756913 0.38397709 833
2.5585673 -0.93002784 0.38624927 871
1.5732452 -1.7533125 0.27157271 827
2.4205446 -1.0682689 0.38119194 802
2.5113914 -0.93836737 0.39294523 849
2.5616491 -0.93157297 0.39944729 873
2.5167236 -0.96419883 0.40630788 849
2.5379109 -0.94788653 0.40915713 870
2.5580542 -0.93095487 0.41186598 847
2.3788655 -1.075784 0.39996395 848
2.4316595 -1.0506196 0.4073382 860
2.4496646 -1.0342203 0.40985316 867
2.4582841 -1.0140712 0.41105714 859
2.5076828 -0.98520756 0.41795716 849
2.4055626 -1.0876472 0.4154 856
2.4173827 -1.0690181 0.4171094 881
2.4714139 -1.0196745 0.42492315 877
2.4409821 -1.0557506 0.43332422 847
2.4608514 -1.0399542 0.43630329 849
2.4824755 -1.0245774 0.43954551 804
1.7414292 -1.6616763 0.3629666 816
1.7204307 -1.6969813 0.36845621 860
1.732375 -1.681421 0.37055278 912
1.7528175 -1.6739522 0.37414104 848
1.7776105 -1.670292 0.37849292 829
1.6489598 -1.7646415 0.36408707 850
1.6629384 -1.7231219 0.36661148 823
1.7451321 -1.695188 0.38145489 946
1.5957065 -1.7941855 0.36275309 848
1.6399598 -1.7566625 0.37097949 935
1.6565557 -1.7460405 0.37406453 978
1.6944107 -1.7292329 0.38110152 816
1.7187147 -1.6983707 0.38561949 933
1.7277967 -1.6800444 0.38730776 928
1.5981773 -1.7986444 0.37112409 971
1.6231401 -1.7685754 0.37589073 908
1.7085632 -1.7173541 0.39220226 835
1.6207355 -1.7965604 0.38384613 1086
1.6422255 -1.7624654 0.38806358 957
1.6642926 -1.7575499 0.39239427 967
1.6705712 -1.7359605 0.39362645 907
1.6904751 -1.7285259 0.39753261 816
1.7217793 -1.7046225 0.40367612 825
1.5800388 -1.8109119 0.38398793 847
1.5956404 -1.7993875 0.38713178 1097
1.631263 -1.7810086 0.39431003 953
1.6486691 -1.7711699 0.39781749 919
1.6778209 -1.7452328 0.4036918 838
1.608891 -1.7869759 0.39779562 1073
1.5823421 -1.8471907 0.40038323 835
1.613158 -1.7936112 0.40690985 994
1.57101 -1.8358701 0.40611368 852
1.5925912 -1.8311336 0.41079858 829
1.5939304 -1.8031033 0.41108927 909
1.6166912 -1.7995095 0.41603023 862
