# .PCD v0.7 - Point Cloud Data file format
VERSION 0.7
FIELDS x y z intensity
SIZE 4 4 4 4
TYPE F F F F
COUNT 1 1 1 1
WIDTH 1211
HEIGHT 1
VIEWPOINT 0 0 0 1 0 0 0
POINTS 1211
DATA ascii
1.8520443 1.2724416 -0.67094678 907
1.8417113 1.2436095 -0.68382591 822
1.8349776 1.2634145 -0.6810047 880
1.8291887 1.2388511 -0.69705003 885
1.8261876 1.2616091 -0.69576168 881
1.9457288 1.1681679 -0.48633015 828
1.9434015 1.1909615 -0.48564911 1019
1.949325 1.1687343 -0.47674531 1134
1.9540755 1.1966974 -0.47810906 1329
1.9365844 1.2085853 -0.47308788 955
1.952824 1.1693008 -0.46731487 1278
1.9559996 1.1961237 -0.46820921 1503
1.9235992 1.1969712 -0.45908445 1119
1.9656801 1.176664 -0.46096906 1280
1.9624814 1.1989915 -0.46008477 1544
1.9511997 1.2155536 -0.45696586 1208
2.0040505 1.1284733 -0.46083054 958
1.9909309 1.1437341 -0.45727524 1155
1.9728962 1.1554989 -0.45238796 1095
1.9563968 1.1681679 -0.44791672 1225
1.9540564 1.1909615 -0.44728246 1556
1.9436128 1.2080046 -0.44445235 1282
2.0317786 1.0970024 -0.45758283 879
2.0270295 1.117908 -0.45632151 1177
2.0188301 1.1366428 -0.45414373 1337
2.0064297 1.1525651 -0.45085016 1450
1.9810842 1.1594132 -0.44411847 1337
1.9709014 1.176664 -0.44141391 1145
1.9613603 1.1944031 -0.43887982 1556
1.9492998 1.2103274 -0.43567657 1354
1.4948697 -1.1602731 -0.3071698 803
2.0335512 1.0964725 -0.44735742 1122
2.023087 1.1136097 -0.4446342 1438
2.0076087 1.1273839 -0.44060609 1535
1.9993055 1.1459419 -0.43844524 1571
1.9956458 1.1678011 -0.43749279 1414
1.9845805 1.1845938 -0.43461317 1030
1.9749594 1.2024331 -0.43210936 1545
1.954936 1.2126502 -0.42689842 1430
1.4332204 -1.1126624 -0.2836476 819
2.036921 1.0970024 -0.43752274 1186
2.0158143 1.1071621 -0.43214291 1508
2.0060599 1.1246608 -0.42965662 1533
1.9985771 1.1437341 -0.42774937 1486
1.9949312 1.1655643 -0.42682007 1316
1.9798778 1.179496 -0.42298317 903
1.9718752 1.198418 -0.42094341 1509
1.9463379 1.2045203 -0.41443428 1470
2.1719687 0.96265286 -0.46062833 1012
2.1343355 0.96550232 -0.45123562 1328
2.1343291 0.98875445 -0.45123401 1108
2.0329964 1.1168336 -0.42594275 1386
2.0288429 1.1382768 -0.42490608 1355
2.0212345 1.1575325 -0.42300716 1224
1.998162 1.1661235 -0.41724855 1003
1.9726832 1.197271 -0.41088939 1411
1.9597615 1.2126502 -0.40766433 1413
1.9443651 1.226135 -0.40382159 827
2.1659262 0.95803541 -0.44794497 1112
2.1471565 0.97113603 -0.44335881 1473
2.1300278 0.98493725 -0.43917367 1264
2.0640552 1.1113102 -0.42305407 828
2.0394969 1.1195199 -0.41705355 1113
2.0214655 1.131741 -0.41264778 953
1.9549586 1.2074238 -0.39639765 1226
2.1615961 0.95434147 -0.43549269 1037
2.1445522 0.96831924 -0.4314197 1480
2.1445217 0.99161738 -0.4314124 1339
1.9861151 1.2035803 -0.3935571 874
1.3722416 -1.2250726 -0.23963684 818
1.4523329 -1.274948 -0.2583437 822
2.1779509 0.96172935 -0.42782581 914
2.1608231 0.97583073 -0.42382532 1443
2.1530261 0.99495751 -0.42200419 1368
1.3536993 -1.1701714 -0.22864199 819
1.403379 -1.1931461 -0.23999426 819
2.169172 0.9791171 -0.41498527 1305
2.1587679 0.99686617 -0.41260782 1263
2.0795004 1.0686139 -0.39449444 923
2.0858195 1.0964842 -0.3959384 809
1.0931404 -1.1225352 -0.16364358 832
1.4799099 -1.1775472 -0.2500259 822
1.5601381 -1.2195516 -0.26794431 805
2.1603034 0.97301394 -0.40198708 1010
2.1602323 0.99638897 -0.40197122 932
2.1205151 1.0445001 -0.39310068 877
2.111243 1.0627755 -0.3910298 1154
2.100975 1.0804598 -0.38873655 1296
2.0822353 1.0928266 -0.38455114 1096
2.1194124 1.0425 -0.38184658 1141
2.1059384 1.0582076 -0.37890849 1428
2.0965354 1.0763395 -0.37685806 1503
2.0794764 1.0896916 -0.37313825 1265
2.1149015 1.0385001 -0.36970341 1256
2.1124029 1.0607454 -0.36917201 1525
2.1054831 1.0804598 -0.36770025 1507
2.1025476 1.1027541 -0.36707589 1246
2.1255131 1.0435001 -0.36113504 1193
2.1179066 1.0627755 -0.35955667 1418
2.0899799 1.069644 -0.35376167 1336
2.0862997 1.0912591 -0.35299802 1067
2.1276438 1.0435001 -0.35054454 972
2.1107397 1.0571924 -0.34712598 1139
2.1122377 1.0820049 -0.34742895 935
2.1101933 1.0727341 -0.27186018 884
2.1008279 1.1150198 -0.27030563 954
2.0875044 1.1308033 -0.26809403 891
2.1340942 1.062268 -0.26498419 964
2.109324 1.071189 -0.2610006 1260
2.1030741 1.0912591 -0.25999549 1122
2.1008151 1.1139599 -0.2596322 1305
2.0749993 1.1216692 -0.25548044 1154
2.1323073 1.0602378 -0.25398767 1126
2.1270154 1.0809748 -0.25316367 1470
2.1046681 1.0912591 -0.24968392 1315
2.0915141 1.1070709 -0.24763566 1488
2.0815713 1.124893 -0.24608743 1309
2.1381261 1.0627755 -0.24420732 1134
2.1251795 1.0789146 -0.24225721 1521
2.1121078 1.0949166 -0.2402882 1356
2.0854945 1.1023016 -0.23627946 1522
2.0797555 1.1227437 -0.23541503 1366
2.1294181 1.056685 -0.23217107 1048
2.1190596 1.0742793 -0.23066385 1510
2.1245809 1.1017091 -0.23146725 1370
2.1037633 1.1129 -0.22843815 1501
2.0854089 1.1254303 -0.22576751 1409
2.1436796 1.0642982 -0.22347036 939
2.140887 1.0866401 -0.2230783 1478
2.1142192 1.0943942 -0.2193343 1390
2.112766 1.1176693 -0.21913029 1467
2.0926867 1.1291914 -0.21631129 1442
2.1442444 1.0637904 -0.21278602 835
2.1312616 1.0799448 -0.2110296 1446
2.1164625 1.0949166 -0.20902748 1414
2.0939941 1.1049513 -0.20598778 1425
2.0840409 1.1227437 -0.20464122 1468
2.0963693 1.1551607 -0.20630911 851
2.1292348 1.0778846 -0.19994773 1408
2.1169806 1.0943942 -0.19835317 1435
2.1071157 1.1123701 -0.19706951 1377
2.0837097 1.1216692 -0.19402382 1453
2.0960557 1.1540713 -0.19563034 944
2.137316 1.0820049 -0.19050427 1354
2.1148653 1.0923041 -0.18769503 1416
2.0991225 1.106541 -0.18572512 1244
2.1000216 1.1313406 -0.18583763 1309
2.0815003 1.1437231 -0.18352006 890
2.1402755 1.0830349 -0.18013945 1219
2.1262679 1.098574 -0.17845812 1276
2.1214066 1.119789 -0.17787464 952
2.1046057 1.1334897 -0.17585807 959
2.1389158 1.0814898 -0.169358 958
2.1274543 1.098574 -0.16804019 956
2.1176298 1.1129 -0.10394092 932
2.1016693 1.1270422 -0.10258855 963
2.1311502 1.1208488 -0.094256312 1234
2.1134322 1.134027 -0.092846565 1243
2.1259933 1.1171395 -0.083434008 1391
2.1158702 1.1351017 -0.082679003 1398
2.1250165 1.1160796 -0.072870597 1404
2.1157408 1.1345644 -0.07222534 1438
2.1290555 1.1181992 -0.062789358 1352
2.1130252 1.1324153 -0.061753567 1392
2.1019211 1.1497142 -0.061036099 844
2.1288078 1.1176693 -0.052516699 1180
2.1251237 1.1394 -0.041813634 872
1.3896528 -1.5340848 0.059790943 801
1.3747997 -1.4935393 0.059930295 858
3.1841552 -0.95264477 0.042954877 800
2.7331436 -0.83177626 0.061025307 831
2.5786009 0.80671579 0.13839418 833
2.5656505 0.82623309 0.13805869 890
2.5782056 0.80671579 0.15101136 903
2.570837 0.82843214 0.1507839 984
2.5889237 0.81101626 0.16453393 936
2.5740802 0.82989818 0.16399905 1033
2.5921261 0.81244969 0.17743815 953
2.5679762 0.82769918 0.17644715 1055
2.60179 0.81639171 0.19070524 952
2.5785401 0.83209711 0.18963461 1067
2.3258955 1.0852963 0.17800067 820
2.3256161 1.1103543 0.1779878 826
2.2991133 1.1205 0.17676738 819
2.3018661 1.1475344 0.17689414 826
2.274343 1.1566855 0.17562674 818
2.26301 1.1753814 0.17510487 824
2.2532086 1.1950375 0.17465353 826
2.2415421 1.2135473 0.1741163 824
2.228039 1.2308655 0.1734945 821
2.2168944 1.249706 0.17298131 802
2.1652668 1.2936318 0.17060393 801
2.1543705 1.312531 0.17010216 817
2.1198633 1.3143028 0.16851315 808
2.1216164 1.3423502 0.16859388 809
2.1118617 1.3621122 0.16814469 812
2.0665877 1.4092138 0.16605988 819
2.053061 1.4260854 0.165437 822
2.0347631 1.4390215 0.16459441 820
1.9795105 1.505322 0.1620501 807
1.9413941 1.5000169 0.16029488 810
1.9344459 1.5225471 0.15997492 846
1.9119002 1.530758 0.15893672 856
1.9096383 1.5579755 0.15883256 816
2.5955346 0.81424147 0.20325904 942
2.584389 0.83466262 0.2026899 1081
2.5795577 0.85758358 0.2024432 809
2.534322 0.88854331 0.20013332 808
2.3322895 1.0891746 0.18981688 863
2.3293684 1.1128165 0.18966772 874
2.2942011 1.1179999 0.18787196 869
2.2849283 1.1378912 0.18739846 870
2.2780416 1.1592605 0.18704681 847
2.2632828 1.1759039 0.18629317 851
2.2509387 1.1939777 0.18566284 858
2.2207534 1.2006522 0.18412149 865
2.227469 1.2308655 0.1844644 879
2.2154939 1.2491541 0.18385291 871
2.1917689 1.2595087 0.18264143 875
2.1803684 1.2780508 0.18205929 880
2.1638935 1.2930582 0.18121803 922
2.1481268 1.3084661 0.18041293 931
2.1241672 1.3178296 0.17918947 929
2.1154521 1.3381864 0.17874445 927
2.1041415 1.3566958 0.1781669 923
2.0855281 1.3696407 0.17721644 923
2.0810061 1.3934561 0.17698552 928
2.0676196 1.4104588 0.17630197 939
2.0548618 1.4279733 0.17565051 938
2.0303867 1.435841 0.17440073 929
2.0227532 1.4575422 0.17401095 910
1.9943817 1.4616939 0.1725622 903
1.9871875 1.4838417 0.17219484 940
1.9737648 1.5006837 0.17150943 951
1.9453466 1.5040317 0.17005831 949
1.931738 1.5205203 0.16936341 971
1.9355099 1.5532639 0.16955602 973
1.9127676 1.5614173 0.16839471 936
1.8950503 1.574165 0.16749002 904
1.8800961 1.589536 0.16672641 870
1.8664207 1.6061897 0.1660281 842
1.8602885 1.6305816 0.16571496 815
1.6416917 -0.73103052 0.16283557 812
1.6524286 -0.7199316 0.16343917 822
1.6752443 -0.71324307 0.16472182 821
1.6943054 -0.70483166 0.16579337 803
2.5994511 0.81603336 0.21667813 928
2.579932 0.83319664 0.21558082 1092
2.5899262 0.86207885 0.21614267 839
2.5418658 0.89205986 0.21344085 809
2.224314 1.2292315 0.19558898 816
2.2031987 1.2414271 0.19440192 824
2.1803753 1.2522392 0.19311887 873
2.1739788 1.2740859 0.19275928 916
2.1640863 1.2936318 0.19220313 952
2.1491315 1.3096275 0.19136243 949
2.138092 1.3284097 0.19074182 958
2.1196558 1.3417553 0.18970537 956
2.1035326 1.3566958 0.18879898 956
2.0873008 1.371467 0.18788648 961
2.071749 1.3866838 0.1870122 970
2.0662394 1.4098363 0.18670246 985
2.0434036 1.4191626 0.1854187 982
2.0267167 1.4332967 0.18448059 977
1.9922845 1.4603949 0.18254493 979
1.978322 1.4766248 0.18176 1020
1.9784263 1.505322 0.18176585 1037
1.959621 1.5174143 0.18070866 1039
1.938538 1.5272764 0.17952344 1051
1.9261851 1.5450799 0.178829 1051
1.9143842 1.5634824 0.17816558 1028
1.9031174 1.5825008 0.1775322 1006
1.8788368 1.5888349 0.1761672 981
1.8658773 1.6061897 0.17543866 949
1.8506492 1.6213093 0.17458259 923
1.8352901 1.6362952 0.17371914 907
1.8246118 1.6562239 0.17311883 898
1.8096304 1.6717124 0.17227662 869
1.79181 1.684126 0.17127481 854
1.7812502 1.7045403 0.17068116 867
1.7572296 1.7099289 0.16933079 865
1.7469971 1.7308873 0.16875555 828
1.7378199 1.7533277 0.16823962 802
1.5809312 -0.78193152 0.16705489 846
1.5965883 -0.77359354 0.1680124 881
1.6486202 -0.73396254 0.17119439 929
1.6681893 -0.71079159 0.17239113 904
1.6815962 -0.70038539 0.17321102 886
1.6836478 -0.68578279 0.17333649 837
2.6098557 0.82033384 0.22997841 918
2.5968053 0.84016019 0.22918032 1097
2.5910025 0.86282808 0.22882545 855
2.5622375 0.90104669 0.22706634 807
2.1733243 1.2740859 0.20328249 847
2.1699755 1.2982204 0.2030777 866
2.1566103 1.3154346 0.20226035 844
2.1398704 1.330173 0.20123662 854
2.1101911 1.3352123 0.1994216 866
2.1021013 1.356094 0.19892687 872
2.0874631 1.3720758 0.19803168 881
2.0664048 1.3829899 0.19674386 894
2.0531175 1.399876 0.19593129 913
2.0489924 1.4241973 0.19567901 917
2.0368872 1.4422017 0.19493872 916
2.0116162 1.449186 0.19339328 934
2.0091391 1.4753323 0.1932418 941
1.9912835 1.488434 0.19214985 976
1.9651197 1.4940574 0.19054981 1005
1.9634789 1.5214291 0.19044946 1042
1.9416307 1.5306543 0.18911335 1056
1.9241422 1.543716 0.18804385 1049
1.9138047 1.5634824 0.18741165 1038
1.886745 1.5672183 0.18575683 1038
1.8754197 1.5860313 0.18506424 1035
1.8716638 1.6125537 0.18483455 1011
1.8563846 1.6277286 0.18390015 1004
1.8333467 1.6348567 0.18249127 992
1.8171874 1.6489701 0.18150306 992
1.8104424 1.673175 0.18109058 951
1.7666162 1.7211633 0.1784104 927
1.7523594 1.7376797 0.17753853 871
1.7359948 1.7518069 0.17653775 832
1.5783306 -0.79626513 0.17472485 964
1.6013616 -0.79128647 0.17625009 980
1.6033685 -0.77678353 0.176383 1005
1.6153388 -0.76659369 0.17717575 1051
1.6198686 -0.75318182 0.17747574 1038
1.6372304 -0.74498343 0.17862552 995
1.651777 -0.73542857 0.1795889 983
1.6648222 -0.709741 0.18045282 918
1.6735275 -0.69764924 0.18102933 905
1.6906041 -0.68845326 0.18216026 872
2.6071265 0.81961703 0.24285774 905
2.5829461 0.83502918 0.24125637 1096
2.5790405 0.85833275 0.24099773 858
2.5522015 0.89713937 0.23922029 802
2.5413008 0.91750127 0.23849837 800
2.040055 1.4453822 0.20530294 800
2.0178218 1.454971 0.20383053 822
1.9883572 1.4864658 0.2018792 842
1.9786601 1.5066472 0.20123701 879
1.956147 1.5154068 0.19974606 958
1.9453936 1.5347078 0.1990339 993
1.9220371 1.542352 0.1974871 988
1.9124385 1.562794 0.19685143 977
1.9026201 1.5831954 0.19620119 992
1.8740783 1.5853305 0.19431099 1008
1.8738575 1.6153822 0.19429636 1011
1.8361959 1.6384532 0.1918022 1036
1.8220711 1.6547732 0.19086677 1032
1.8043894 1.6673242 0.18969578 1002
1.7879664 1.6811768 0.18860815 990
1.775436 1.6993383 0.18777832 995
1.7653602 1.7204144 0.18711103 982
1.7432591 1.7278686 0.18564737 911
1.718928 1.7657902 0.18403602 808
1.5572796 -0.83276361 0.18104205 958
1.5660084 -0.82152623 0.18166433 1012
1.5701302 -0.80807614 0.18195817 1047
1.6156716 -0.76698446 0.1852048 1096
1.6688912 -0.711492 0.18899882 942
1.6928134 -0.68945467 0.19070423 914
1.6947594 -0.67476875 0.19084296 898
1.7107579 -0.66485071 0.19198349 871
1.7679552 -0.63658702 0.19606106 811
2.6117847 0.82176727 0.25621751 897
2.5950181 0.84016019 0.25502223 1096
2.5882945 0.86245352 0.25454289 854
2.5541153 0.92348248 0.25210628 800
1.9576672 1.5174143 0.20958561 823
1.9388103 1.5293031 0.2082413 884
1.9271815 1.5478081 0.20741227 876
1.9103031 1.5614173 0.20620903 867
1.8940425 1.5755543 0.20504981 894
1.8840747 1.595844 0.20433921 923
1.874593 1.6167965 0.20366326 947
1.8439059 1.6163166 0.20147558 988
1.8286049 1.6312599 0.20038478 1030
1.8282802 1.662027 0.20036162 1030
1.8023779 1.6658615 0.19851506 1024
1.79406 1.6885495 0.19792208 1029
1.7794672 1.7045403 0.19688176 1023
1.7706712 1.7271549 0.1962547 1003
1.7498276 1.7361703 0.19476876 930
1.7231221 1.7381194 0.19286492 874
1.7189478 1.7665563 0.19256733 815
1.5451881 -0.8425622 0.18782206 936
1.5521955 -0.83057177 0.18835706 1058
1.5636023 -0.82066524 0.18922794 1060
1.584406 -0.79958272 0.19081627 1090
1.5910528 -0.78721905 0.19132374 1095
1.6196361 -0.76893812 0.19350602 1069
1.6260252 -0.75624329 0.19399382 972
1.6369294 -0.74535799 0.19482633 939
1.6780571 -0.73068267 0.19796637 972
1.680388 -0.71604466 0.19814432 959
1.6900783 -0.70414764 0.19888416 972
1.7119889 -0.66548532 0.20055701 901
1.7231914 -0.65376663 0.20141229 876
1.7362118 -0.64249355 0.20240638 848
1.7558315 -0.63307852 0.2039043 820
2.6079977 0.82069218 0.26896569 881
2.6014514 0.84309214 0.26846591 1089
2.5836105 0.860955 0.26710379 872
1.9081224 1.5600406 0.21553145 809
1.9105284 1.592226 0.21571516 831
1.8703469 1.6132609 0.21264736 861
1.8564751 1.6298684 0.21158826 932
1.8320571 1.6355759 0.20972399 1027
1.8351264 1.670006 0.20995833 1039
1.8037239 1.6680555 0.20756081 1011
1.7900009 1.6848632 0.20651308 1003
1.7847863 1.7112286 0.20611496 1014
1.7511154 1.7384344 0.20354424 942
1.7379991 1.7563692 0.20254284 887
1.7278986 1.778047 0.20177168 831
1.5543655 -0.84747034 0.19618617 966
1.5623084 -0.83583224 0.19683266 1065
1.5656594 -0.82195681 0.19710539 1035
1.5967741 -0.79006624 0.19963783 1058
1.616135 -0.78316355 0.20121361 1029
1.6437755 -0.763897 0.20346327 866
1.6445758 -0.74872947 0.20352842 809
1.6461554 -0.73396254 0.20365697 884
1.6783006 -0.73104101 0.20627327 937
1.6712979 -0.71289283 0.20570333 948
1.6818938 -0.70141149 0.20656572 966
1.6933466 -0.69012225 0.20749788 966
1.7084905 -0.67997783 0.20873044 967
1.7272263 -0.6553117 0.21025534 908
1.7459582 -0.64580131 0.21177994 869
1.7417697 -0.62898529 0.21143903 830
2.6162484 0.82427585 0.28261298 869
2.6078188 0.84602422 0.2819269 1091
2.5918071 0.86470109 0.2806237 895
1.9218042 1.5738077 0.22609207 814
1.9032972 1.5859742 0.22458577 837
1.8790278 1.5923395 0.22261049 816
1.8752223 1.6189178 0.22230077 822
1.8668952 1.6412804 0.22162302 910
1.8479263 1.65284 0.22007912 1037
1.830261 1.6656538 0.21864136 1059
1.8118241 1.6775631 0.21714076 997
1.7993703 1.6959225 0.21612716 954
1.7847242 1.7119718 0.21493511 987
1.7653031 1.7226613 0.21335442 984
1.7471304 1.734661 0.21187533 933
1.740525 1.7601712 0.21133773 889
1.7348799 1.7872394 0.21087827 832
1.5625273 -0.83627063 0.2045273 1033
1.5640821 -0.82152623 0.20466167 1005
1.5745195 -0.8110345 0.2055636 1016
1.5957626 -0.80538839 0.20739929 1029
1.6035583 -0.77797979 0.20807296 863
1.6329453 -0.77518982 0.21061239 814
1.6608334 -0.72459042 0.21302231 836
1.6696424 -0.71254259 0.21378352 855
1.6980188 -0.70756781 0.21623564 928
1.7001282 -0.69279271 0.21641792 966
1.7068107 -0.67965227 0.21699537 962
1.7162185 -0.66738915 0.21780834 951
1.7473261 -0.66211009 0.22049646 927
1.7518559 -0.64790624 0.2208879 893
2.6179209 0.82535094 0.29572782 851
2.621536 0.85188824 0.29604021 1093
2.6064034 0.87106949 0.29473254 922
1.8974611 1.5811116 0.23347019 816
1.8744148 1.6189178 0.23147868 814
1.8577114 1.6327214 0.23003528 902
1.8485143 1.6542788 0.22924051 1047
1.8281007 1.6642032 0.22747649 1067
1.8124021 1.6790259 0.22611992 966
1.7932098 1.6900241 0.22446144 909
1.7959542 1.7253485 0.2246986 971
1.7711431 1.7301508 0.22255458 980
1.7548734 1.7444723 0.22114865 933
1.7371857 1.7571297 0.2196202 892
1.7238848 1.7749828 0.21847081 828
1.4612414 -0.9384895 0.20313323 801
1.5565273 -0.84925514 0.21185862 932
1.5608983 -0.83583224 0.21225888 1013
1.5950136 -0.80538839 0.21538284 936
1.6669092 -0.74275857 0.22196636 831
1.6628439 -0.72566551 0.2215941 843
1.6990948 -0.70825189 0.22491361 840
1.698393 -0.69245893 0.22484936 883
1.710719 -0.68128008 0.22597806 906
1.7258028 -0.67087954 0.22735928 943
1.7398785 -0.65994698 0.22864822 935
1.7500861 -0.64760554 0.22958292 916
1.7573446 -0.63424802 0.23024759 868
1.7759522 -0.62421048 0.2319515 801
2.6222849 0.82750118 0.30945075 844
2.6129076 0.84895617 0.30859205 1088
2.6079645 0.87219328 0.30813938 944
1.8582393 1.6341479 0.23948658 881
1.8400407 1.646366 0.23782012 1047
1.8217618 1.6584001 0.23614632 1066
1.8129127 1.6804885 0.23533599 958
1.8058263 1.7047696 0.23468709 879
1.787118 1.7164307 0.23297395 958
1.7736136 1.7338955 0.23173735 980
1.7638519 1.7557927 0.23084345 935
1.7428397 1.7647337 0.22891937 890
1.732679 1.7864734 0.22798894 813
1.4102147 -0.98674268 0.20550762 913
1.4209119 -0.97764593 0.20654197 916
1.4323879 -0.96896362 0.20765162 853
1.4579623 -0.93694443 0.21012445 815
1.5557621 -0.84925514 0.21958093 921
1.5610257 -0.83627063 0.2200899 991
1.5751567 -0.82755339 0.22145624 976
1.5802237 -0.81441545 0.22194619 970
1.6424077 -0.7642796 0.2279589 903
1.6533619 -0.75322473 0.22901809 1009
1.6762784 -0.74679011 0.23123394 1073
1.6759666 -0.73104101 0.23120378 1037
1.7192914 -0.6845358 0.23539296 871
1.7306201 -0.67278332 0.23648837 942
1.7494388 -0.66334617 0.23830798 938
1.7454313 -0.64640272 0.23792049 924
2.6691346 0.79526865 0.32723546 836
2.6367257 0.80840796 0.32410178 813
2.6275151 0.83000976 0.32321119 874
2.623677 0.85372072 0.32284006 1075
2.6186941 0.8770631 0.32235825 979
1.8719807 1.6491262 0.25015682 848
1.8384488 1.6456467 0.24691455 1052
1.8434802 1.6823374 0.24740106 1068
1.816098 1.6848767 0.24475341 963
1.7982177 1.6973969 0.24302451 889
1.7889067 1.7194031 0.24212423 953
1.7780212 1.7398872 0.24107169 984
1.7662528 1.7595664 0.23993376 938
1.7337492 1.7887715 0.23679091 800
1.4053626 -1.0001898 0.21176739 867
1.4319152 -1.001645 0.21446513 961
1.4447834 -0.96120399 0.21577255 827
1.4527633 -0.9501428 0.2165833 858
1.4580928 -0.93745941 0.21712479 891
1.4795904 -0.93438804 0.21930894 834
1.5576638 -0.85059369 0.2272412 909
1.5665133 -0.8393392 0.22814031 974
1.5815617 -0.83099747 0.22966921 958
1.578541 -0.8139928 0.22936231 910
1.6434351 -0.76504505 0.23595557 1070
1.6663822 -0.75884384 0.23828699 1170
1.6745255 -0.7464236 0.23911433 1190
1.6704955 -0.72924918 0.23870489 1119
1.7193887 -0.66929299 0.24367245 891
1.7502638 -0.64820695 0.24680935 924
1.7565691 -0.63454038 0.24744996 899
1.7951934 -0.63045883 0.25137419 817
2.6908052 0.77829409 0.3423683 862
2.6743731 0.79766279 0.34069881 926
2.6652558 0.81961465 0.33977249 924
2.6299448 0.83144319 0.33618489 958
2.6196163 0.8526212 0.33513552 1059
2.5989642 0.86957091 0.33303729 1042
2.5864809 0.88967806 0.33176896 963
2.5903206 0.91667587 0.33215907 916
2.5610332 0.92946368 0.32918349 834
1.8626913 1.6405671 0.25823197 872
1.8486009 1.6571561 0.25680038 1059
1.8329849 1.6721822 0.2552138 1069
1.814525 1.6841453 0.25333828 965
1.7946432 1.6944478 0.25131828 910
1.7833652 1.7142012 0.25017244 970
1.771871 1.7338955 0.24900463 993
1.7621186 1.7557927 0.24801379 946
1.7398343 1.7632128 0.24574971 890
1.4029392 -0.99907148 0.21865202 840
1.4112262 -0.98839849 0.21953714 926
1.4219269 -0.97927982 0.22068009 891
1.4482039 -0.9638536 0.22348674 955
1.4779192 -0.93388045 0.22666062 918
1.5541379 -0.84925514 0.23480153 912
1.5806925 -0.83099747 0.23763782 933
1.6425327 -0.76504505 0.24424297 1094
1.6461067 -0.7509771 0.2446247 1207
1.659729 -0.74092609 0.2460797 1202
1.67422 -0.73104101 0.24762748 1081
1.7381605 -0.66025597 0.25445697 892
1.7606839 -0.65181541 0.25686267 917
1.782231 -0.64272684 0.25916409 897
1.7961162 -0.63102686 0.26064721 808
2.6977761 0.7812984 0.35695332 850
2.6794579 0.80005693 0.35499677 941
2.6693931 0.82171589 0.35392174 963
2.6507919 0.84004396 0.35193497 1005
2.6339176 0.85885179 0.35013261 1045
2.610456 0.87481552 0.34762669 1072
2.5896652 0.89159161 0.34540603 1070
2.5779264 0.91198713 0.34415221 1056
2.5587261 0.92906493 0.34210142 1005
2.5439591 0.94791943 0.34052417 961
2.5127633 0.9591313 0.33719215 924
2.517606 0.98678356 0.3377094 860
2.4943278 1.0012578 0.33522305 812
1.8707314 1.6498393 0.26861683 926
1.8475883 1.6571561 0.26614493 1069
1.8340341 1.6743584 0.26469719 1069
1.8209902 1.6921902 0.263304 959
1.8070948 1.7091933 0.26181981 915
1.7788061 1.7428831 0.2587983 994
1.7676759 1.7633399 0.25760949 947
1.7421091 1.7670149 0.2548787 895
1.4013286 -0.99851227 0.22540937 862
1.4261305 -0.98254764 0.22818418 950
1.4507636 -0.96597332 0.23094009 1030
1.4536917 -0.95171034 0.23126769 1039
1.4898943 -0.90956718 0.23531796 814
1.5550472 -0.85014755 0.24260716 916
1.5692425 -0.84153104 0.24419531 969
1.643451 -0.76581037 0.25249764 1015
1.6717466 -0.74605709 0.25566331 1189
1.6807071 -0.733908 0.2566658 996
1.7438744 -0.67817754 0.26373285 809
1.7456968 -0.66303712 0.26393673 876
1.7587534 -0.65151471 0.26539749 906
1.7679312 -0.63863361 0.26642427 880
2.6817076 0.80142498 0.36865607 894
2.667913 0.82171589 0.36711276 945
2.6326218 0.83359343 0.36316445 992
2.6204364 0.85408729 0.36180118 1044
2.6062438 0.87369174 0.36021331 1077
2.5992465 0.89618367 0.35943046 1093
2.5691779 0.90886122 0.35606644 1108
2.5718887 0.93544489 0.3563697 1093
2.5425475 0.94791943 0.35308707 1073
2.5285511 0.96701044 0.35152116 1042
2.5279179 0.99227756 0.35145035 1000
2.5028102 1.0059934 0.34864134 961
2.4847944 1.0228614 0.34662575 946
2.47734 1.0448546 0.34579176 947
2.4502027 1.0568171 0.34275568 897
2.4486022 1.081784 0.34257662 800
1.8956333 1.6450807 0.28071138 828
1.8794405 1.659825 0.27889976 977
1.854152 1.6650687 0.27607051 1087
1.8377999 1.679436 0.27424106 1069
1.8240412 1.6965784 0.27270177 952
1.8087724 1.7121425 0.27099353 918
1.7827232 1.7156875 0.26807919 973
1.7653855 1.7618306 0.26613948 958
1.7417821 1.7677753 0.26349875 893
1.4046313 -1.0013082 0.23268215 886
1.4195542 -0.9950217 0.23442687 932
1.4269679 -0.98363692 0.23529364 946
1.4507632 -0.9665032 0.2380757 953
1.4579287 -0.95484525 0.23891345 955
1.465844 -0.94363987 0.23983887 947
1.4745222 -0.93286544 0.24085349 848
1.5737005 -0.85996383 0.25244898 923
1.579789 -0.83142799 0.2531608 876
1.6470871 -0.7677238 0.26102898 884
1.6589683 -0.75697082 0.26241809 1146
1.6726269 -0.74679011 0.26401496 1141
1.6695338 -0.72996593 0.26365337 877
1.7097797 -0.69813365 0.26835871 854
1.7409815 -0.67754292 0.27200669 849
1.7588558 -0.6676724 0.27409646 903
1.7691029 -0.65512317 0.27529451 916
1.7707077 -0.63980311 0.27548215 871
2.677542 0.82591832 0.3815051 846
2.6496525 0.84076077 0.37824437 892
2.6309426 0.85885179 0.37605688 958
2.5949979 0.89503568 0.37185442 1050
2.5832422 0.9155038 0.37048 1076
2.5722303 0.9362424 0.36919254 1095
2.5374544 0.94629246 0.3651267 1094
2.5252881 0.9661811 0.36370426 1090
2.515661 0.98720628 0.36257869 1078
2.509438 1.009868 0.36185113 1062
2.4869347 1.0246149 0.35922015 1059
2.4652472 1.0395002 0.35668457 1062
2.4576418 1.0613569 0.35579535 1027
2.435739 1.0757813 0.35323459 913
1.8875146 1.6380097 0.28913867 844
1.8644307 1.6455598 0.28643981 990
1.8517003 1.6636302 0.28495142 1086
1.8367373 1.679436 0.28320202 1066
1.8144364 1.7195152 0.28059471 924
1.7976422 1.733523 0.27863121 975
1.7748107 1.7406362 0.27596185 1001
1.7611059 1.7580569 0.27435955 967
1.7472245 1.7753793 0.27273658 897
1.4203192 -0.99612564 0.24175455 859
1.4235754 -0.98200303 0.24215224 856
1.5585018 -0.85282469 0.25863177 958
1.5744878 -0.845038 0.26058424 995
1.5734243 -0.8288449 0.26045436 868
1.670657 -0.7464236 0.27233008 1046
1.7199389 -0.70213932 0.27834919 846
1.7219838 -0.68714035 0.27859896 823
1.7492603 -0.66489124 0.28193045 899
1.7604239 -0.65271753 0.28329393 924
1.7658042 -0.63863361 0.28395104 862
2.6022041 0.87331706 0.38610646 857
2.5979698 0.89694911 0.3855893 908
2.589859 0.91902024 0.3845987 955
2.5678999 0.93504614 0.38191667 989
2.5458515 0.95076662 0.37922373 1005
2.5363629 0.97198683 0.37806484 1025
2.5158954 0.98805135 0.37556499 1057
2.5060849 1.009007 0.37436679 1075
2.4844952 1.0241766 0.37172988 1088
2.4717083 1.043516 0.37016812 1085
2.4472682 1.0568171 0.36718306 1077
2.4271798 1.0720874 0.36472952 969
1.8898455 1.6415451 0.29910111 823
1.8660496 1.6484129 0.29619473 947
1.8519228 1.6650687 0.29446933 1070
1.8403729 1.6845136 0.29305866 1058
1.8184627 1.6929215 0.29038262 938
1.7985498 1.7032952 0.28795052 943
1.7892131 1.7253485 0.28681016 993
1.7658663 1.7648493 0.28395864 970
1.7448431 1.7738587 0.28139094 890
1.5646168 -0.85639429 0.26715052 986
1.5699242 -0.84328455 0.26782569 1030
1.5903352 -0.83745515 0.27042228 825
1.6605605 -0.75846922 0.279356 918
1.6677539 -0.74569058 0.28027111 910
1.7651361 -0.67045355 0.29265958 873
1.7668796 -0.65512317 0.29288137 909
2.5533111 0.95483392 0.3929272 806
2.5338633 0.9715721 0.39045316 850
2.508018 0.98509306 0.38716525 908
2.4919722 1.0029798 0.38512397 957
2.4722319 1.0189161 0.38261271 995
2.478142 1.0475318 0.38336456 1000
2.4554498 1.061811 0.38047779 996
2.4388499 1.0790136 0.37836602 932
1.8704331 1.6541189 0.30605492 851
1.8500636 1.6643496 0.30346361 1022
1.8323816 1.6772598 0.30121419 1031
1.8247555 1.7009665 0.30024406 896
1.8054551 1.7121425 0.29778874 909
1.7960473 1.734266 0.29659194 987
1.7719229 1.7398872 0.29352295 1006
1.7634481 1.7633399 0.29244483 968
1.7476053 1.778421 0.29042938 890
1.7413161 -0.69462842 0.29835829 860
1.7545413 -0.66736335 0.30010834 862
1.7572025 -0.65241683 0.30046052 917
1.7834303 -0.64477342 0.30393118 873
2.4555995 1.0627189 0.39287779 808
1.8550397 1.6708236 0.31340709 947
1.8455017 1.6924926 0.31214494 970
1.8262546 1.7038919 0.309598 863
1.8143085 1.7232016 0.30801722 875
1.799504 1.7394681 0.30605817 982
1.7832328 1.7541173 0.30390504 1001
1.7629331 1.7640947 0.30121884 973
1.7528887 1.7860252 0.29988965 878
1.5607219 -0.85550189 0.28236058 978
1.580261 -0.84942174 0.28504723 961
1.7106197 -0.71577626 0.30297184 863
1.7277291 -0.70614499 0.30532441 935
1.7344879 -0.69267499 0.30625376 857
1.761804 -0.67014456 0.31000981 872
1.77677 -0.6590324 0.31206766 929
1.795457 -0.64886659 0.31463715 893
1.8606356 1.678017 0.32359934 878
1.8333113 1.6808867 0.31984222 919
1.8222859 1.7009665 0.31832618 863
1.8043498 1.7136171 0.31585994 892
1.7896385 1.7298071 0.31383711 982
1.7793704 1.7511215 0.31242523 1002
1.7561765 1.791348 0.30923599 874
1.5782481 -0.84898341 0.2926679 916
1.685249 -0.73820841 0.30792794 870
1.7098826 -0.73180407 0.31144106 883
1.7332565 -0.69267499 0.31477457 858
1.7746763 -0.67477977 0.32068172 892
1.7688997 -0.65692741 0.31985787 924
1.7790352 -0.64418864 0.32130337 872
1.8716941 1.6909651 0.33451802 833
1.8408697 1.6903167 0.33012193 877
1.8297701 1.7104741 0.32853895 881
1.8151081 1.7268879 0.32644793 920
1.8055916 1.7491289 0.32509071 984
1.7886032 1.7631048 0.3226679 1005
1.7637073 1.7678682 0.31911734 969
1.7394991 1.7730981 0.31566486 867
1.5699877 -0.8613025 0.29926422 936
1.5744332 -0.84766829 0.29992071 887
1.6198807 -0.80592895 0.30663228 814
1.6641885 -0.7776736 0.31317553 884
1.666935 -0.76296449 0.31358114 908
1.68059 -0.75265408 0.31559768 921
1.6960309 -0.74286717 0.31787795 953
1.6993742 -0.728302 0.31837165 962
1.7137409 -0.71782845 0.32049331 982
1.731776 -0.70848161 0.32315668 1001
1.7413512 -0.69593066 0.32457072 837
1.7715061 -0.67416173 0.3290239 912
1.7732761 -0.65873164 0.32928529 910
1.8675867 1.6880877 0.34321284 827
1.844981 1.6961195 0.33987448 832
1.8264176 1.70828 0.33713308 854
1.8117852 1.7246761 0.33497223 909
1.8029568 1.7476428 0.33366847 987
1.7774718 1.7518704 0.32990491 1010
1.7747579 1.7822076 0.32950413 967
1.7510854 1.7883064 0.32600826 863
1.5705614 -0.86219484 0.30723906 921
1.5767881 -0.84942174 0.30819055 873
1.6316392 -0.79592347 0.31657246 1031
1.650941 -0.78847468 0.31952202 1051
1.6901259 -0.74107534 0.32550994 983
1.7254417 -0.72261667 0.3309066 974
1.7276629 -0.70748025 0.33124602 960
1.7626373 -0.67168963 0.3365905 903
1.7672132 -0.65722811 0.33728978 903
1.7943523 -0.64974374 0.34143695 835
1.8716602 1.6938424 0.35325053 817
1.8354124 1.687415 0.34771141 813
1.8358154 1.7199817 0.34777302 824
1.8150823 1.7298372 0.34460473 886
1.8062156 1.7528447 0.3432498 986
1.7918402 1.7698455 0.34105307 1018
1.7740563 1.7829623 0.33833548 971
1.7516792 1.7905874 0.334916 858
0.80408067 -1.5718184 0.19409601 858
1.487271 -0.96166623 0.30202964 802
1.5835302 -0.85336709 0.31723714 928
1.6169109 -0.82156146 0.32251078 986
1.6254878 -0.80958962 0.32386577 1052
1.6469073 -0.78730249 0.32724974 1054
1.6570435 -0.77576017 0.3288511 1054
1.6698434 -0.76521212 0.33087331 1032
1.724077 -0.72261667 0.33944139 1002
1.7356076 -0.71081829 0.34126303 944
1.7509263 -0.68420631 0.34368315 870
1.7659404 -0.6732347 0.34605515 910
1.7919891 -0.64945138 0.35017043 827
1.8681226 1.6916845 0.36219838 816
1.8489199 1.7033733 0.35916463 817
1.8350377 1.720713 0.35697147 833
1.8136473 1.7298372 0.35359213 866
1.8014829 1.7491289 0.35167032 980
1.7851872 1.7638538 0.34909585 1013
1.7752457 1.7859811 0.34752524 968
1.7515769 1.7921083 0.34378594 850
0.80553949 -1.5763313 0.19834732 920
0.81144607 -1.5567908 0.19931124 826
1.4506607 -0.9723323 0.30362779 839
1.4712946 -0.96895278 0.30699515 890
1.4905738 -0.94809157 0.31014138 838
1.5848904 -0.85468221 0.32553339 969
1.6149712 -0.83723682 0.33044243 800
1.6259557 -0.81040305 0.33223504 1031
1.6380599 -0.79991096 0.33421037 997
1.6473714 -0.78808397 0.33572999 973
1.6602415 -0.7776736 0.33783031 1030
1.6721324 -0.76671058 0.33977082 1031
1.6793593 -0.7537536 0.34095022 1069
1.7012229 -0.74645084 0.34451824 1104
1.7147578 -0.73565632 0.34672707 1050
1.7481374 -0.71582538 0.35217446 938
1.743755 -0.69820964 0.35145926 815
1.7560402 -0.68642747 0.35346416 923
1.7719997 -0.67570686 0.35606867 927
1.7775438 -0.66143799 0.35697344 902
1.7999561 -0.6523751 0.36063102 818
1.8375702 1.7251011 0.36676943 819
1.8114917 1.7290998 0.36251357 848
1.8026459 1.7521017 0.36106998 953
1.782414 1.7623559 0.35776821 997
1.7737882 1.7859811 0.35636055 968
1.7520617 1.7943895 0.35281488 834
0.79451227 -1.5868114 0.20043775 940
0.80401713 -1.5745261 0.2020375 975
0.81033576 -1.5558921 0.20310098 877
1.4373072 -0.99725294 0.30862552 864
1.4505078 -0.98938102 0.31084728 890
1.4692316 -0.96843022 0.31399864 934
1.4881951 -0.96372634 0.31719035 930
1.4978325 -0.9531669 0.31881243 817
1.5773172 -0.86754924 0.33219036 962
1.6268044 -0.82736719 0.34051946 1013
1.6390201 -0.81691086 0.34257546 1040
1.6514505 -0.79042834 0.34466761 950
1.6615967 -0.77882159 0.34637529 1018
1.6670872 -0.76521212 0.3472994 1043
1.6853057 -0.75668561 0.35036573 1080
1.7059454 -0.73285466 0.35383955 1020
1.7351317 -0.72774696 0.35875186 981
1.7327436 -0.71081829 0.35834992 904
1.7553618 -0.70276761 0.36215675 884
1.7723515 -0.69245625 0.36501628 962
1.7971914 1.7476428 0.36919701 893
1.7855092 1.7675986 0.3672308 967
1.7723167 1.7859811 0.36501038 965
1.7570125 1.8019936 0.36243457 815
0.73727995 -1.8376627 0.19451021 802
1.4160979 -1.0169656 0.31233585 832
1.4359645 -1.0137875 0.31578419 872
1.4401737 -0.9999761 0.31651482 903
1.4500623 -0.98991835 0.31823123 899
1.4598777 -0.97975117 0.31993493 881
1.4511372 -0.95798028 0.31841779 840
1.5794568 -0.86933404 0.34069085 969
1.5839528 -0.85555893 0.34147123 1012
1.5918797 -0.84348232 0.34284714 834
1.5970311 -0.83005232 0.3437413 833
1.6298565 -0.82944059 0.34943894 1014
1.6339784 -0.81528389 0.3501544 1048
1.6728793 -0.78417921 0.35690662 1017
1.6802378 -0.77120584 0.35818386 1035
1.6865741 -0.75778514 0.35928369 1053
1.7243479 -0.72432679 0.36584026 926
1.7659295 -0.70700002 0.37305778 929
1.7605157 -0.68896586 0.37211809 974
1.7699103 -0.67601585 0.37374875 941
1.780146 -0.66324222 0.37552541 891
1.8138423 -0.65763777 0.38137421 800
1.8101157 1.7639918 0.38072738 809
1.7872041 1.7713434 0.37675053 924
1.7655877 1.7799435 0.37299845 939
0.79185545 -1.5840924 0.2078898 1046
0.80386317 -1.5772338 0.21003592 1057
0.81537229 -1.5693741 0.21209292 951
1.3954469 -1.0368093 0.31576824 893
1.4096442 -1.0300547 0.31830573 907
1.4330519 -1.0126836 0.32248932 845
1.441376 -1.00161 0.32397705 820
1.5789406 -0.86978024 0.34856364 953
1.5860908 -0.85731244 0.34984156 998
1.6011337 -0.84864843 0.35253015 876
1.6388284 -0.81813109 0.35926723 1005
1.6455505 -0.80509472 0.36046866 994
1.6711928 -0.80019665 0.36505166 966
1.6814902 -0.77232969 0.36689207 978
1.6841668 -0.75741863 0.36737046 977
1.7004911 -0.74788433 0.37028807 905
1.7195356 -0.73915839 0.37369186 884
1.7255985 -0.72535288 0.37477544 929
1.7408248 -0.71482396 0.37749684 910
1.7748294 -0.69436008 0.38357437 939
1.7786441 -0.67941505 0.38425615 897
1.7856241 1.7713434 0.38550371 862
1.7724224 1.7897547 0.3831442 887
0.7798841 -1.5926679 0.20960438 916
0.79237843 -1.5868114 0.21190199 1088
0.80397511 -1.579039 0.21403454 1095
0.824287 -1.5578405 0.21776974 847
1.3808734 -1.0609374 0.32012182 863
1.3935853 -1.0532527 0.32245946 895
1.5933466 -0.87781179 0.35919407 920
1.6050026 -0.85123152 0.36133751 898
1.6557781 -0.81027848 0.37067473 955
1.6551868 -0.7939449 0.37056601 935
1.6798741 -0.78838873 0.37510583 925
1.6826957 -0.77345347 0.37562469 935
1.6917849 -0.7610836 0.37729612 917
1.7383137 -0.71449018 0.38585243 927
1.7646228 -0.70765114 0.39069048 920
1.7657531 -0.69182163 0.39089835 903
1.787315 -0.68281424 0.3948634 863
1.7824241 1.8033395 0.39396399 808
0.78078228 -1.5963078 0.21363176 943
0.81429374 -1.5702729 0.2199675 1033
1.3731661 -1.0732251 0.32562885 852
1.3795822 -1.0609374 0.32684192 877
1.3866826 -1.0491879 0.32818434 868
1.4105799 -1.049428 0.3327024 809
1.5777879 -0.87067264 0.364315 887
1.6043617 -0.86783332 0.36933908 924
1.6254125 -0.82944059 0.373319 944
1.6474762 -0.82341868 0.3774904 913
1.6587362 -0.81227219 0.37961927 932
1.6581625 -0.79589856 0.37951079 879
1.6701342 -0.78494453 0.38177419 880
1.6911449 -0.77757418 0.38574651 911
1.693861 -0.76254964 0.38626 871
1.7344209 -0.72979915 0.39392832 927
1.7505832 -0.71949726 0.39698401 945
1.7573999 -0.70569772 0.39827278 919
1.7762171 -0.69594657 0.40183038 877
0.80158979 -1.5772338 0.22160806 1173
0.8130666 -1.5693741 0.2238383 1062
0.82402223 -1.5605253 0.22596724 904
1.3418493 -1.1018199 0.32659414 815
1.3660843 -1.0860714 0.33130363 853
1.3805057 -1.0797683 0.33410606 832
1.5788839 -0.87201124 0.37265593 853
1.5922087 -0.86257285 0.3752453 862
1.6238267 -0.82944059 0.38138947 874
1.6598188 -0.81346846 0.38838363 891
1.6967753 -0.76438218 0.39556521 854
1.7082551 -0.73670691 0.39779603 858
1.7447207 -0.73424536 0.40488222 930
1.7544277 -0.7215001 0.40676853 940
1.7658954 -0.70927894 0.408997 903
1.7744846 -0.69594657 0.41066611 863
0.78131443 -1.6008575 0.22138125 974
0.79011303 -1.5868114 0.22313473 1169
0.81487793 -1.5747669 0.22807014 1077
1.3498576 -1.1092077 0.33468679 810
1.5888052 -0.87781179 0.3823069 849
1.6118629 -0.87309378 0.38690209 863
1.6251756 -0.84695709 0.38955519 817
1.6419291 -0.83856386 0.39289403 812
1.6627511 -0.81546217 0.39704365 811
1.6897213 -0.77832341 0.40241858 858
1.7234006 -0.75935209 0.40913054 901
1.7458411 -0.73527145 0.41360274 941
1.7527741 -0.7215001 0.41498443 912
1.7635119 -0.69277358 0.41712436 833
0.79181325 -1.5922492 0.22734123 1180
0.80383384 -1.5853571 0.22979812 1194
0.81492835 -1.5765644 0.23206575 1067
0.82461274 -1.5649999 0.23404515 917
1.5767097 -0.87245739 0.38776734 873
1.6049827 -0.87046355 0.39354613 912
1.6103388 -0.85682815 0.39464086 899
1.6129104 -0.84188563 0.39516649 874
1.6403029 -0.83856386 0.40076527 853
1.6722834 -0.80410391 0.40730178 822
1.6853225 -0.77719957 0.40996689 866
1.7117286 -0.77171218 0.41536406 905
1.7171205 -0.75756025 0.41646612 947
1.7671158 -0.7109068 0.42668474 814
0.841223 -1.5694114 0.24194828 819
1.3005098 -1.1594784 0.33838591 809
1.3039752 -1.1444621 0.33911353 882
1.6191521 -0.86199427 0.40529206 917
1.6306343 -0.85118324 0.40770301 910
1.6637489 -0.81745595 0.41465613 935
1.6722298 -0.80488539 0.41643691 921
1.6898047 -0.77982181 0.42012715 899
1.6998134 -0.76768064 0.42222872 919
1.7152156 -0.75756025 0.42546275 918
1.7195637 -0.74301064 0.42637572 894
0.77923352 -1.6017675 0.23289697 958
0.79131705 -1.5949681 0.23549843 1175
0.81185645 -1.573868 0.23992032 1051
0.82673115 -1.5730544 0.24312268 909
1.3117404 -1.170519 0.34753972 817
1.3040624 -1.1457477 0.34588671 890
1.5933887 -0.91574043 0.40817544 818
1.5995035 -0.88584334 0.4094919 869
1.6032255 -0.87134033 0.41029319 933
1.6156361 -0.86113328 0.41296506 935
1.6208966 -0.84737962 0.41409758 915
1.6402692 -0.8402226 0.41826829 958
1.6480225 -0.82748604 0.41993749 985
1.6574668 -0.81546217 0.42197073 985
1.6695212 -0.80449462 0.42456591 950
1.6815048 -0.79336363 0.42714587 925
1.7015733 -0.78544086 0.43146637 892
1.7125282 -0.77354467 0.43382484 885
1.7206619 -0.76042724 0.43557593 865
1.7167882 -0.74266046 0.43474197 842
1.7660151 -0.74484801 0.44533995 807
0.79086274 -1.5958744 0.23939113 1164
0.82190377 -1.5649999 0.24623744 902
1.5769176 -0.90789074 0.41276112 812
1.6069498 -0.90714586 0.41938493 812
1.5994991 -0.88673574 0.41774163 880
1.6251669 -0.88317633 0.42340285 945
1.6279684 -0.86802149 0.42402074 958
1.6350514 -0.85498679 0.42558292 932
1.6375836 -0.83980793 0.42614141 952
1.6497854 -0.82911295 0.42883262 974
1.6583376 -0.81665844 0.43071884 937
1.6730856 -0.80683905 0.43397164 905
1.6751517 -0.7914502 0.43442732 867
1.6942976 -0.76694763 0.43865007 822
0.79159957 -1.5994996 0.24367061 1142
0.80152881 -1.5880648 0.24591449 1153
0.81473511 -1.5837548 0.24889894 1014
0.82095587 -1.5649999 0.25030476 886
1.6002727 -0.88807434 0.42642003 862
1.6110185 -0.87703913 0.42884845 946
1.6243249 -0.85076058 0.43185553 926
1.6410198 -0.84229606 0.43562832 914
1.6487732 -0.82951969 0.43738052 907
1.6765426 -0.80918342 0.44365603 809
0.80231428 -1.5916752 0.25004259 1105
0.81382799 -1.5837548 0.2527037 976
0.81786811 -1.5605253 0.25363746 860
1.41603 -1.0967922 0.39188713 809
1.6030933 -0.87397051 0.43512198 866
1.6119667 -0.86199427 0.43717283 875
1.6145678 -0.84695709 0.437774 839
0.77367944 -1.5972177 0.2473903 855
0.78937101 -1.5985934 0.25110105 1036
0.81457096 -1.5873499 0.25706038 921
1.4058417 -1.0729966 0.39688447 815
0.78830028 -1.6004059 0.25880942 830
0.8058098 -1.5729692 0.26313469 844
0.82179308 -1.6089211 0.27134627 812
0.96560991 -1.4892917 0.35303417 816
0.96572322 -1.4918076 0.35815302 863
0.97543669 -1.4815595 0.36113065 859
0.94303465 -1.509534 0.35611331 827
0.96582687 -1.4943236 0.36322325 905
0.9867608 -1.4762118 0.36975348 873
0.94258803 -1.51123 0.36093935 907
0.95452422 -1.504511 0.36472794 978
0.96930426 -1.4765562 0.36941916 862
0.99003267 -1.4836731 0.37599841 888
0.94206953 -1.5129262 0.365908 965
0.96432668 -1.4968396 0.37309811 944
0.97298557 -1.484895 0.37589532 852
0.97938186 -1.4695795 0.37796164 890
0.95347106 -1.5078846 0.3747322 1027
0.96379453 -1.4985169 0.3781248 933
0.96720964 -1.4782239 0.3792471 834
0.98682141 -1.4836731 0.38569212 883
1.0065873 -1.4888635 0.39218777 807
0.8809123 -1.5779971 0.35564917 877
0.89663655 -1.5490854 0.3609049 823
0.92902529 -1.5229508 0.37173069 868
0.94149542 -1.5171665 0.37589875 980
0.96219885 -1.4985169 0.38281873 901
0.97503066 -1.4932338 0.3871077 816
0.982005 -1.4786988 0.38943881 878
1.0102918 -1.4971048 0.39889354 819
0.86027098 -1.5708659 0.35332304 855
0.87854171 -1.5762479 0.3595309 956
0.88530093 -1.5596426 0.36182746 988
0.89847165 -1.5551476 0.36630249 882
0.91744828 -1.532897 0.37275016 845
0.94596261 -1.527343 0.38243845 964
0.95184773 -1.5104147 0.38443804 983
0.98356038 -1.4836731 0.39521304 874
0.99843341 -1.4814463 0.40026644 820
0.86271638 -1.5787753 0.3593033 920
0.87277043 -1.5683763 0.3627817 1015
0.90245622 -1.56554 0.37305218 936
0.93315834 -1.5357404 0.38367426 875
0.98382676 -1.4869893 0.40120414 867
0.85389274 -1.5943953 0.36038372 824
0.86724043 -1.5901998 0.36506882 970
0.87325561 -1.5718749 0.36718017 1040
0.88878351 -1.5718275 0.37263054 1050
0.89917815 -1.5620759 0.37627909 972
0.91090733 -1.5548265 0.3803961 915
0.91625881 -1.5363257 0.38227448 874
0.94723052 -1.5349754 0.39314571 898
0.94859523 -1.5104147 0.39362472 879
0.98494673 -1.4911344 0.40638426 853
0.83214396 -1.6157438 0.35722473 961
0.84255648 -1.605551 0.36093783 966
0.85639328 -1.6023418 0.36587206 891
0.86438948 -1.5875635 0.36872351 994
0.91124004 -1.558273 0.38543046 923
0.91224432 -1.5320399 0.38578856 835
0.93760109 -1.5214067 0.39483082 830
0.95656514 -1.5264393 0.40159342 808
0.98323709 -1.4911344 0.41110465 821
0.86374706 -1.5893211 0.37322035 1004
0.87520337 -1.5814955 0.37737083 1025
0.88519901 -1.5709572 0.38099211 1027
0.89884013 -1.5672719 0.38593408 974
0.81697088 -1.6222758 0.36083579 887
0.83083653 -1.6193079 0.36593974 1110
0.84167325 -1.6099861 0.36992875 1123
0.86663276 -1.5981092 0.37911633 999
0.87449968 -1.5832448 0.38201216 999
0.89436698 -1.5620759 0.38932532 943
0.90365106 -1.5505184 0.39274278 819
0.81881797 -1.6294353 0.36601162 936
0.82973945 -1.6201988 0.37009427 1147
0.86236197 -1.5928364 0.38228911 976
0.88804287 -1.5534157 0.39188907 885
0.81775182 -1.6303302 0.37000436 967
0.83947152 -1.61176 0.378245 1169
0.85281807 -1.6076396 0.3833088 1045
0.87357944 -1.5876179 0.39118582 938
0.88449007 -1.5787904 0.39532542 908
0.89157426 -1.5629419 0.3980132 822
0.82709521 -1.6210898 0.37813199 1168
0.84133255 -1.6188561 0.38361588 1166
0.8609525 -1.5963516 0.39117298 917
0.8692134 -1.5823702 0.39435488 881
0.81626147 -1.6339099 0.37862456 966
0.82842469 -1.6273268 0.3833819 1164
0.83838391 -1.6161951 0.38727719 1160
0.85215122 -1.6129371 0.39266193 1019
0.86147642 -1.6007458 0.39630929 867
0.83891338 -1.6206301 0.3921296 1132
0.80375355 -1.6466703 0.38269457 811
0.81638604 -1.6410694 0.38778219 934
0.85230583 -1.6200007 0.40224862 921
0.81558663 -1.6428592 0.39202705 915
0.82648832 -1.6335639 0.39648116 1028
0.83729291 -1.6241781 0.40089563 1008
0.84539229 -1.6094054 0.40420479 831
1.4603109 -1.4615347 0.65544283 802
0.80745691 -1.6619499 0.39313895 888
0.81026798 -1.634805 0.39430356 876
0.82779372 -1.639801 0.40156427 922
0.8343609 -1.6215172 0.40428498 889
1.4335663 -1.437889 0.65252954 848
0.78508627 -1.6494406 0.38847324 867
0.80088896 -1.6511643 0.39511672 881
1.4327599 -1.4632148 0.66075623 1018
0.78942329 -1.6629795 0.39469868 860
0.80409175 -1.6619499 0.40095058 838
1.4156775 -1.4488928 0.6616171 996
1.4282185 -1.4385647 0.66696227 960
0.80039293 -1.6918621 0.40397328 811
1.4012315 -1.4372989 0.66365564 945
1.4068853 -1.4203237 0.66609919 933
1.3183483 -1.3466843 0.66677427 833
